-1018.806727 -466.788212 2125.379849
-1017.207431 -467.929099 2125.754855
-1015.608135 -469.069986 2126.129862
-1014.008839 -470.210873 2126.504868
-1012.409544 -471.351759 2126.879875
-1010.810248 -472.492646 2127.254881
-1009.210952 -473.633533 2127.629888
-1007.611656 -474.774420 2128.004894
-1006.012360 -475.915307 2128.379901
-1004.413064 -477.056193 2128.754907
-1002.813768 -478.197080 2129.129913
-1001.214472 -479.337967 2129.504920
-999.615176 -480.478854 2129.879926
-998.015880 -481.619741 2130.254933
-996.416584 -482.760627 2130.629939
-994.817288 -483.901514 2131.004946
-993.217992 -485.042401 2131.379952
-991.618696 -486.183288 2131.754959
-990.019401 -487.324175 2132.129965
-988.420105 -488.465061 2132.504971
-986.820809 -489.605948 2132.879978
-985.221513 -490.746835 2133.254984
-983.622217 -491.887722 2133.629991
-982.022921 -493.028609 2134.004997
-980.423625 -494.169495 2134.380004
-978.824329 -495.310382 2134.755010
-977.225033 -496.451269 2135.130017
-975.625737 -497.592156 2135.505023
-974.026441 -498.733043 2135.880029
-972.427145 -499.873930 2136.255036
-970.827849 -501.014816 2136.630042
-969.228554 -502.155703 2137.005049
-967.629258 -503.296590 2137.380055
-966.029962 -504.437477 2137.755062
-964.430666 -505.578364 2138.130068
-962.831370 -506.719250 2138.505075
-961.232074 -507.860137 2138.880081
-959.632778 -509.001024 2139.255087
-958.033482 -510.141911 2139.630094
-956.434186 -511.282798 2140.005100
-954.834890 -512.423684 2140.380107
-953.235594 -513.564571 2140.755113
-951.636298 -514.705458 2141.130120
-950.037002 -515.846345 2141.505126
-948.437706 -516.987232 2141.880132
-946.838411 -518.128118 2142.255139
-945.239115 -519.269005 2142.630145
-943.639819 -520.409892 2143.005152
-942.040523 -521.550779 2143.380158
-940.441227 -522.691666 2143.755165
-938.841931 -523.832552 2144.130171
-937.242635 -524.973439 2144.505178
-935.643339 -526.114326 2144.880184
-1563.682329 -95.000000 1893.000000
-1563.239269 -95.017649 1894.950227
-1562.796210 -95.035297 1896.900455
-1562.353150 -95.052946 1898.850682
-1561.910090 -95.070595 1900.800909
-1561.467030 -95.088243 1902.751136
-1561.023970 -95.105892 1904.701364
-1560.580910 -95.123541 1906.651591
-1560.137850 -95.141189 1908.601818
-1559.694791 -95.158838 1910.552046
-1559.251731 -95.176487 1912.502273
-1558.808671 -95.194135 1914.452500
-1558.365611 -95.211784 1916.402727
-1557.922551 -95.229433 1918.352955
-1557.479491 -95.247081 1920.303182
-1557.036431 -95.264730 1922.253409
-1556.593371 -95.282379 1924.203637
-1556.150312 -95.300027 1926.153864
-1555.707252 -95.317676 1928.104091
-1555.264192 -95.335325 1930.054318
-1554.821132 -95.352974 1932.004546
-1554.378072 -95.370622 1933.954773
-1553.935012 -95.388271 1935.905000
-1553.491952 -95.405920 1937.855228
-1553.048893 -95.423568 1939.805455
-1552.605833 -95.441217 1941.755682
-1552.162773 -95.458866 1943.705910
-1551.719713 -95.476514 1945.656137
-1551.276653 -95.494163 1947.606364
-1550.833593 -95.511812 1949.556591
-1550.390533 -95.529460 1951.506819
-1549.947473 -95.547109 1953.457046
-1549.504414 -95.564758 1955.407273
-1549.061354 -95.582406 1957.357501
-1548.618294 -95.600055 1959.307728
-1548.175234 -95.617704 1961.257955
-1547.732174 -95.635352 1963.208182
-1547.289114 -95.653001 1965.158410
-1546.846054 -95.670650 1967.108637
-1546.402995 -95.688298 1969.058864
-1545.959935 -95.705947 1971.009092
-1545.516875 -95.723596 1972.959319
-1545.073815 -95.741244 1974.909546
-1544.630755 -95.758893 1976.859773
-1544.187695 -95.776542 1978.810001
-1543.744635 -95.794190 1980.760228
-1543.301575 -95.811839 1982.710455
-1542.858516 -95.829488 1984.660683
-1542.415456 -95.847136 1986.610910
-1541.972396 -95.864785 1988.561137
-1541.529336 -95.882434 1990.511364
-1541.086276 -95.900082 1992.461592
-1540.643216 -95.917731 1994.411819
-1540.200156 -95.935380 1996.362046
-1539.757097 -95.953028 1998.312274
-1539.314037 -95.970677 2000.262501
-1616.000023 -46.500000 1783.761037
-1615.198038 -47.243463 1785.435576
-1614.396053 -47.986927 1787.110115
-1613.594067 -48.730390 1788.784655
-1612.792082 -49.473853 1790.459194
-1611.990097 -50.217316 1792.133733
-1611.188112 -50.960780 1793.808273
-1610.386126 -51.704243 1795.482812
-1609.584141 -52.447706 1797.157351
-1608.782156 -53.191170 1798.831891
-1607.980171 -53.934633 1800.506430
-1607.178185 -54.678096 1802.180970
-1606.376200 -55.421559 1803.855509
-1605.574215 -56.165023 1805.530048
-1604.772230 -56.908486 1807.204588
-1603.970244 -57.651949 1808.879127
-1603.168259 -58.395413 1810.553666
-1602.366274 -59.138876 1812.228206
-1601.564289 -59.882339 1813.902745
-1600.762303 -60.625802 1815.577284
-1599.960318 -61.369266 1817.251824
-1599.158333 -62.112729 1818.926363
-1598.356348 -62.856192 1820.600902
-1597.554362 -63.599655 1822.275442
-1596.752377 -64.343119 1823.949981
-1595.950392 -65.086582 1825.624520
-1595.148407 -65.830045 1827.299060
-1594.346422 -66.573509 1828.973599
-1593.544436 -67.316972 1830.648138
-1592.742451 -68.060435 1832.322678
-1591.940466 -68.803898 1833.997217
-1591.138481 -69.547362 1835.671756
-1590.336495 -70.290825 1837.346296
-1589.534510 -71.034288 1839.020835
-1588.732525 -71.777752 1840.695374
-1587.930540 -72.521215 1842.369914
-1587.128554 -73.264678 1844.044453
-1586.326569 -74.008141 1845.718992
-1585.524584 -74.751605 1847.393532
-1584.722599 -75.495068 1849.068071
-1583.920613 -76.238531 1850.742611
-1583.118628 -76.981995 1852.417150
-1582.316643 -77.725458 1854.091689
-1581.514658 -78.468921 1855.766229
-1580.712672 -79.212384 1857.440768
-1579.910687 -79.955848 1859.115307
-1579.108702 -80.699311 1860.789847
-1578.306717 -81.442774 1862.464386
-1577.504731 -82.186238 1864.138925
-1576.702746 -82.929701 1865.813465
-1575.900761 -83.673164 1867.488004
-1575.098776 -84.416627 1869.162543
-1574.296790 -85.160091 1870.837083
-1573.494805 -85.903554 1872.511622
-1572.692820 -86.647017 1874.186161
-1571.890835 -87.390481 1875.860701
-1571.088849 -88.133944 1877.535240
-1570.286864 -88.877407 1879.209779
-1569.484879 -89.620870 1880.884319
-1568.682894 -90.364334 1882.558858
-1567.880908 -91.107797 1884.233397
-1567.078923 -91.851260 1885.907937
-1566.276938 -92.594724 1887.582476
-1565.474953 -93.338187 1889.257015
-1564.672967 -94.081650 1890.931555
-1615.749870 3.000000 1783.026689
-1615.759975 1.000246 1783.056356
-1615.770081 -0.999509 1783.086023
-1615.780187 -2.999263 1783.115690
-1615.790293 -4.999018 1783.145357
-1615.800399 -6.998772 1783.175024
-1615.810505 -8.998527 1783.204691
-1615.820611 -10.998281 1783.234358
-1615.830717 -12.998035 1783.264025
-1615.840823 -14.997790 1783.293692
-1615.850929 -16.997544 1783.323359
-1615.861035 -18.997299 1783.353026
-1615.871141 -20.997053 1783.382693
-1615.881247 -22.996807 1783.412360
-1615.891353 -24.996562 1783.442027
-1615.901459 -26.996316 1783.471694
-1615.911565 -28.996071 1783.501361
-1615.921671 -30.995825 1783.531028
-1615.931777 -32.995580 1783.560695
-1615.941883 -34.995334 1783.590361
-1615.951989 -36.995088 1783.620028
-1615.962095 -38.994843 1783.649695
-1615.972201 -40.994597 1783.679362
-1615.982307 -42.994352 1783.709029
-1573.166580 452.000000 1693.634661
-1573.351810 450.046927 1694.023501
-1573.537040 448.093854 1694.412341
-1573.722270 446.140782 1694.801181
-1573.907500 444.187709 1695.190021
-1574.092730 442.234636 1695.578861
-1574.277960 440.281563 1695.967701
-1574.463190 438.328490 1696.356541
-1574.648420 436.375418 1696.745381
-1574.833650 434.422345 1697.134221
-1575.018880 432.469272 1697.523061
-1575.204110 430.516199 1697.911901
-1575.389340 428.563126 1698.300741
-1575.574570 426.610054 1698.689581
-1575.759800 424.656981 1699.078421
-1575.945029 422.703908 1699.467261
-1576.130259 420.750835 1699.856101
-1576.315489 418.797762 1700.244940
-1576.500719 416.844690 1700.633780
-1576.685949 414.891617 1701.022620
-1576.871179 412.938544 1701.411460
-1577.056409 410.985471 1701.800300
-1577.241639 409.032398 1702.189140
-1577.426869 407.079326 1702.577980
-1577.612099 405.126253 1702.966820
-1577.797329 403.173180 1703.355660
-1577.982559 401.220107 1703.744500
-1578.167789 399.267035 1704.133340
-1578.353019 397.313962 1704.522180
-1578.538249 395.360889 1704.911020
-1578.723479 393.407816 1705.299860
-1578.908709 391.454743 1705.688700
-1579.093939 389.501671 1706.077540
-1579.279169 387.548598 1706.466380
-1579.464399 385.595525 1706.855220
-1579.649629 383.642452 1707.244060
-1579.834859 381.689379 1707.632900
-1580.020089 379.736307 1708.021739
-1580.205319 377.783234 1708.410579
-1580.390549 375.830161 1708.799419
-1580.575779 373.877088 1709.188259
-1580.761009 371.924015 1709.577099
-1580.946239 369.970943 1709.965939
-1581.131469 368.017870 1710.354779
-1581.316699 366.064797 1710.743619
-1581.501929 364.111724 1711.132459
-1581.687159 362.158651 1711.521299
-1581.872389 360.205579 1711.910139
-1582.057619 358.252506 1712.298979
-1582.242849 356.299433 1712.687819
-1582.428079 354.346360 1713.076659
-1582.613309 352.393287 1713.465499
-1582.798539 350.440215 1713.854339
-1582.983769 348.487142 1714.243179
-1583.168999 346.534069 1714.632019
-1583.354229 344.580996 1715.020859
-1583.539459 342.627923 1715.409698
-1583.724689 340.674851 1715.798538
-1583.909919 338.721778 1716.187378
-1584.095149 336.768705 1716.576218
-1584.280379 334.815632 1716.965058
-1584.465609 332.862559 1717.353898
-1584.650839 330.909487 1717.742738
-1584.836069 328.956414 1718.131578
-1585.021299 327.003341 1718.520418
-1585.206529 325.050268 1718.909258
-1585.391759 323.097195 1719.298098
-1585.576989 321.144123 1719.686938
-1585.762219 319.191050 1720.075778
-1585.947449 317.237977 1720.464618
-1586.132679 315.284904 1720.853458
-1586.317909 313.331832 1721.242298
-1586.503139 311.378759 1721.631138
-1586.688369 309.425686 1722.019978
-1586.873599 307.472613 1722.408818
-1587.058829 305.519540 1722.797658
-1587.244059 303.566468 1723.186497
-1587.429289 301.613395 1723.575337
-1587.614519 299.660322 1723.964177
-1587.799749 297.707249 1724.353017
-1587.984979 295.754176 1724.741857
-1588.170209 293.801104 1725.130697
-1588.355439 291.848031 1725.519537
-1588.540669 289.894958 1725.908377
-1588.725899 287.941885 1726.297217
-1588.911129 285.988812 1726.686057
-1589.096359 284.035740 1727.074897
-1589.281589 282.082667 1727.463737
-1589.466819 280.129594 1727.852577
-1589.652049 278.176521 1728.241417
-1589.837279 276.223448 1728.630257
-1590.022509 274.270376 1729.019097
-1590.207739 272.317303 1729.407937
-1590.392969 270.364230 1729.796777
-1590.578199 268.411157 1730.185617
-1590.763429 266.458084 1730.574457
-1590.948659 264.505012 1730.963296
-1591.133889 262.551939 1731.352136
-1591.319119 260.598866 1731.740976
-1591.504349 258.645793 1732.129816
-1591.689579 256.692720 1732.518656
-1591.874809 254.739648 1732.907496
-1592.060039 252.786575 1733.296336
-1592.245269 250.833502 1733.685176
-1592.430498 248.880429 1734.074016
-1592.615728 246.927356 1734.462856
-1592.800958 244.974284 1734.851696
-1592.986188 243.021211 1735.240536
-1593.171418 241.068138 1735.629376
-1593.356648 239.115065 1736.018216
-1593.541878 237.161992 1736.407056
-1593.727108 235.208920 1736.795896
-1593.912338 233.255847 1737.184736
-1594.097568 231.302774 1737.573576
-1594.282798 229.349701 1737.962416
-1594.468028 227.396629 1738.351256
-1594.653258 225.443556 1738.740095
-1594.838488 223.490483 1739.128935
-1595.023718 221.537410 1739.517775
-1595.208948 219.584337 1739.906615
-1595.394178 217.631265 1740.295455
-1595.579408 215.678192 1740.684295
-1595.764638 213.725119 1741.073135
-1595.949868 211.772046 1741.461975
-1596.135098 209.818973 1741.850815
-1596.320328 207.865901 1742.239655
-1596.505558 205.912828 1742.628495
-1596.690788 203.959755 1743.017335
-1596.876018 202.006682 1743.406175
-1597.061248 200.053609 1743.795015
-1597.246478 198.100537 1744.183855
-1597.431708 196.147464 1744.572695
-1597.616938 194.194391 1744.961535
-1597.802168 192.241318 1745.350375
-1597.987398 190.288245 1745.739215
-1598.172628 188.335173 1746.128055
-1598.357858 186.382100 1746.516894
-1598.543088 184.429027 1746.905734
-1598.728318 182.475954 1747.294574
-1598.913548 180.522881 1747.683414
-1599.098778 178.569809 1748.072254
-1599.284008 176.616736 1748.461094
-1599.469238 174.663663 1748.849934
-1599.654468 172.710590 1749.238774
-1599.839698 170.757517 1749.627614
-1600.024928 168.804445 1750.016454
-1600.210158 166.851372 1750.405294
-1600.395388 164.898299 1750.794134
-1600.580618 162.945226 1751.182974
-1600.765848 160.992153 1751.571814
-1600.951078 159.039081 1751.960654
-1601.136308 157.086008 1752.349494
-1601.321538 155.132935 1752.738334
-1601.506768 153.179862 1753.127174
-1601.691998 151.226789 1753.516014
-1601.877228 149.273717 1753.904854
-1602.062458 147.320644 1754.293693
-1602.247688 145.367571 1754.682533
-1602.432918 143.414498 1755.071373
-1602.618148 141.461426 1755.460213
-1602.803378 139.508353 1755.849053
-1602.988608 137.555280 1756.237893
-1603.173838 135.602207 1756.626733
-1603.359068 133.649134 1757.015573
-1603.544298 131.696062 1757.404413
-1603.729528 129.742989 1757.793253
-1603.914758 127.789916 1758.182093
-1604.099988 125.836843 1758.570933
-1604.285218 123.883770 1758.959773
-1604.470448 121.930698 1759.348613
-1604.655678 119.977625 1759.737453
-1604.840908 118.024552 1760.126293
-1605.026138 116.071479 1760.515133
-1605.211368 114.118406 1760.903973
-1605.396598 112.165334 1761.292813
-1605.581828 110.212261 1761.681653
-1605.767058 108.259188 1762.070492
-1605.952288 106.306115 1762.459332
-1606.137518 104.353042 1762.848172
-1606.322748 102.399970 1763.237012
-1606.507978 100.446897 1763.625852
-1606.693208 98.493824 1764.014692
-1606.878438 96.540751 1764.403532
-1607.063668 94.587678 1764.792372
-1607.248898 92.634606 1765.181212
-1607.434128 90.681533 1765.570052
-1607.619358 88.728460 1765.958892
-1607.804588 86.775387 1766.347732
-1607.989818 84.822314 1766.736572
-1608.175048 82.869242 1767.125412
-1608.360278 80.916169 1767.514252
-1608.545508 78.963096 1767.903092
-1608.730737 77.010023 1768.291932
-1608.915967 75.056950 1768.680772
-1609.101197 73.103878 1769.069612
-1609.286427 71.150805 1769.458452
-1609.471657 69.197732 1769.847291
-1609.656887 67.244659 1770.236131
-1609.842117 65.291586 1770.624971
-1610.027347 63.338514 1771.013811
-1610.212577 61.385441 1771.402651
-1610.397807 59.432368 1771.791491
-1610.583037 57.479295 1772.180331
-1610.768267 55.526222 1772.569171
-1610.953497 53.573150 1772.958011
-1611.138727 51.620077 1773.346851
-1611.323957 49.667004 1773.735691
-1611.509187 47.713931 1774.124531
-1611.694417 45.760859 1774.513371
-1611.879647 43.807786 1774.902211
-1612.064877 41.854713 1775.291051
-1612.250107 39.901640 1775.679891
-1612.435337 37.948567 1776.068731
-1612.620567 35.995495 1776.457571
-1612.805797 34.042422 1776.846411
-1612.991027 32.089349 1777.235250
-1613.176257 30.136276 1777.624090
-1613.361487 28.183203 1778.012930
-1613.546717 26.230131 1778.401770
-1613.731947 24.277058 1778.790610
-1613.917177 22.323985 1779.179450
-1614.102407 20.370912 1779.568290
-1614.287637 18.417839 1779.957130
-1614.472867 16.464767 1780.345970
-1614.658097 14.511694 1780.734810
-1614.843327 12.558621 1781.123650
-1615.028557 10.605548 1781.512490
-1615.213787 8.652475 1781.901330
-1615.399017 6.699403 1782.290170
-1565.500000 499.500000 1567.000000
-1565.613187 498.798723 1568.869599
-1565.726374 498.097447 1570.739198
-1565.839562 497.396170 1572.608796
-1565.952749 496.694893 1574.478395
-1566.065936 495.993616 1576.347994
-1566.179123 495.292340 1578.217593
-1566.292311 494.591063 1580.087191
-1566.405498 493.889786 1581.956790
-1566.518685 493.188509 1583.826389
-1566.631872 492.487233 1585.695988
-1566.745060 491.785956 1587.565587
-1566.858247 491.084679 1589.435185
-1566.971434 490.383402 1591.304784
-1567.084621 489.682126 1593.174383
-1567.197809 488.980849 1595.043982
-1567.310996 488.279572 1596.913580
-1567.424183 487.578295 1598.783179
-1567.537370 486.877019 1600.652778
-1567.650558 486.175742 1602.522377
-1567.763745 485.474465 1604.391976
-1567.876932 484.773189 1606.261574
-1567.990119 484.071912 1608.131173
-1568.103307 483.370635 1610.000772
-1568.216494 482.669358 1611.870371
-1568.329681 481.968082 1613.739969
-1568.442868 481.266805 1615.609568
-1568.556056 480.565528 1617.479167
-1568.669243 479.864251 1619.348766
-1568.782430 479.162975 1621.218365
-1568.895617 478.461698 1623.087963
-1569.008804 477.760421 1624.957562
-1569.121992 477.059144 1626.827161
-1569.235179 476.357868 1628.696760
-1569.348366 475.656591 1630.566358
-1569.461553 474.955314 1632.435957
-1569.574741 474.254038 1634.305556
-1569.687928 473.552761 1636.175155
-1569.801115 472.851484 1638.044754
-1569.914302 472.150207 1639.914352
-1570.027490 471.448931 1641.783951
-1570.140677 470.747654 1643.653550
-1570.253864 470.046377 1645.523149
-1570.367051 469.345100 1647.392747
-1570.480239 468.643824 1649.262346
-1570.593426 467.942547 1651.131945
-1570.706613 467.241270 1653.001544
-1570.819800 466.539993 1654.871143
-1570.932988 465.838717 1656.740741
-1571.046175 465.137440 1658.610340
-1571.159362 464.436163 1660.479939
-1571.272549 463.734886 1662.349538
-1571.385737 463.033610 1664.219136
-1571.498924 462.332333 1666.088735
-1571.612111 461.631056 1667.958334
-1571.725298 460.929780 1669.827933
-1571.838486 460.228503 1671.697532
-1571.951673 459.527226 1673.567130
-1572.064860 458.825949 1675.436729
-1572.178047 458.124673 1677.306328
-1572.291234 457.423396 1679.175927
-1572.404422 456.722119 1681.045525
-1572.517609 456.020842 1682.915124
-1572.630796 455.319566 1684.784723
-1572.743983 454.618289 1686.654322
-1572.857171 453.917012 1688.523921
-1572.970358 453.215735 1690.393519
-1503.000000 535.000000 1454.000000
-1503.933369 534.469847 1455.687531
-1504.866738 533.939693 1457.375061
-1505.800106 533.409540 1459.062592
-1506.733475 532.879386 1460.750123
-1507.666844 532.349233 1462.437654
-1508.600213 531.819079 1464.125184
-1509.533581 531.288926 1465.812715
-1510.466950 530.758772 1467.500246
-1511.400319 530.228619 1469.187777
-1512.333688 529.698465 1470.875307
-1513.267057 529.168312 1472.562838
-1514.200425 528.638158 1474.250369
-1515.133794 528.108005 1475.937900
-1516.067163 527.577851 1477.625430
-1517.000532 527.047698 1479.312961
-1517.933900 526.517545 1481.000492
-1518.867269 525.987391 1482.688023
-1519.800638 525.457238 1484.375553
-1520.734007 524.927084 1486.063084
-1521.667376 524.396931 1487.750615
-1522.600744 523.866777 1489.438146
-1523.534113 523.336624 1491.125676
-1524.467482 522.806470 1492.813207
-1525.400851 522.276317 1494.500738
-1526.334219 521.746163 1496.188269
-1527.267588 521.216010 1497.875799
-1528.200957 520.685856 1499.563330
-1529.134326 520.155703 1501.250861
-1530.067695 519.625550 1502.938392
-1531.001063 519.095396 1504.625922
-1531.934432 518.565243 1506.313453
-1532.867801 518.035089 1508.000984
-1533.801170 517.504936 1509.688515
-1534.734538 516.974782 1511.376045
-1535.667907 516.444629 1513.063576
-1536.601276 515.914475 1514.751107
-1537.534645 515.384322 1516.438638
-1538.468014 514.854168 1518.126168
-1539.401382 514.324015 1519.813699
-1540.334751 513.793861 1521.501230
-1541.268120 513.263708 1523.188761
-1542.201489 512.733554 1524.876291
-1543.134857 512.203401 1526.563822
-1544.068226 511.673248 1528.251353
-1545.001595 511.143094 1529.938884
-1545.934964 510.612941 1531.626414
-1546.868333 510.082787 1533.313945
-1547.801701 509.552634 1535.001476
-1548.735070 509.022480 1536.689007
-1549.668439 508.492327 1538.376537
-1550.601808 507.962173 1540.064068
-1551.535176 507.432020 1541.751599
-1552.468545 506.901866 1543.439130
-1553.401914 506.371713 1545.126660
-1554.335283 505.841559 1546.814191
-1555.268652 505.311406 1548.501722
-1556.202020 504.781252 1550.189253
-1557.135389 504.251099 1551.876783
-1558.068758 503.720946 1553.564314
-1559.002127 503.190792 1555.251845
-1559.935495 502.660639 1556.939376
-1560.868864 502.130485 1558.626906
-1561.802233 501.600332 1560.314437
-1562.735602 501.070178 1562.001968
-1563.668971 500.540025 1563.689499
-1176.500000 523.000000 1420.000000
-1178.487916 523.073063 1420.207011
-1180.475831 523.146125 1420.414022
-1182.463747 523.219188 1420.621033
-1184.451662 523.292251 1420.828044
-1186.439578 523.365314 1421.035056
-1188.427493 523.438376 1421.242067
-1190.415409 523.511439 1421.449078
-1192.403324 523.584502 1421.656089
-1194.391240 523.657565 1421.863100
-1196.379155 523.730627 1422.070111
-1198.367071 523.803690 1422.277122
-1200.354987 523.876753 1422.484133
-1202.342902 523.949816 1422.691144
-1204.330818 524.022878 1422.898156
-1206.318733 524.095941 1423.105167
-1208.306649 524.169004 1423.312178
-1210.294564 524.242067 1423.519189
-1212.282480 524.315129 1423.726200
-1214.270395 524.388192 1423.933211
-1216.258311 524.461255 1424.140222
-1218.246227 524.534318 1424.347233
-1220.234142 524.607380 1424.554245
-1222.222058 524.680443 1424.761256
-1224.209973 524.753506 1424.968267
-1226.197889 524.826569 1425.175278
-1228.185804 524.899631 1425.382289
-1230.173720 524.972694 1425.589300
-1232.161635 525.045757 1425.796311
-1234.149551 525.118820 1426.003322
-1236.137466 525.191882 1426.210333
-1238.125382 525.264945 1426.417345
-1240.113298 525.338008 1426.624356
-1242.101213 525.411071 1426.831367
-1244.089129 525.484133 1427.038378
-1246.077044 525.557196 1427.245389
-1248.064960 525.630259 1427.452400
-1250.052875 525.703322 1427.659411
-1252.040791 525.776384 1427.866422
-1254.028706 525.849447 1428.073433
-1256.016622 525.922510 1428.280445
-1258.004538 525.995573 1428.487456
-1259.992453 526.068635 1428.694467
-1261.980369 526.141698 1428.901478
-1263.968284 526.214761 1429.108489
-1265.956200 526.287824 1429.315500
-1267.944115 526.360886 1429.522511
-1269.932031 526.433949 1429.729522
-1271.919946 526.507012 1429.936533
-1273.907862 526.580075 1430.143545
-1275.895777 526.653137 1430.350556
-1277.883693 526.726200 1430.557567
-1279.871609 526.799263 1430.764578
-1281.859524 526.872326 1430.971589
-1283.847440 526.945388 1431.178600
-1285.835355 527.018451 1431.385611
-1287.823271 527.091514 1431.592622
-1289.811186 527.164577 1431.799633
-1291.799102 527.237639 1432.006645
-1293.787017 527.310702 1432.213656
-1295.774933 527.383765 1432.420667
-1297.762849 527.456828 1432.627678
-1299.750764 527.529890 1432.834689
-1301.738680 527.602953 1433.041700
-1303.726595 527.676016 1433.248711
-1305.714511 527.749078 1433.455722
-1307.702426 527.822141 1433.662734
-1309.690342 527.895204 1433.869745
-1311.678257 527.968267 1434.076756
-1313.666173 528.041329 1434.283767
-1315.654088 528.114392 1434.490778
-1317.642004 528.187455 1434.697789
-1319.629920 528.260518 1434.904800
-1321.617835 528.333580 1435.111811
-1323.605751 528.406643 1435.318822
-1325.593666 528.479706 1435.525834
-1327.581582 528.552769 1435.732845
-1329.569497 528.625831 1435.939856
-1331.557413 528.698894 1436.146867
-1333.545328 528.771957 1436.353878
-1335.533244 528.845020 1436.560889
-1337.521160 528.918082 1436.767900
-1339.509075 528.991145 1436.974911
-1341.496991 529.064208 1437.181922
-1343.484906 529.137271 1437.388934
-1345.472822 529.210333 1437.595945
-1347.460737 529.283396 1437.802956
-1349.448653 529.356459 1438.009967
-1351.436568 529.429522 1438.216978
-1353.424484 529.502584 1438.423989
-1355.412399 529.575647 1438.631000
-1357.400315 529.648710 1438.838011
-1359.388231 529.721773 1439.045022
-1361.376146 529.794835 1439.252034
-1363.364062 529.867898 1439.459045
-1365.351977 529.940961 1439.666056
-1367.339893 530.014024 1439.873067
-1369.327808 530.087086 1440.080078
-1371.315724 530.160149 1440.287089
-1373.303639 530.233212 1440.494100
-1375.291555 530.306275 1440.701111
-1377.279471 530.379337 1440.908123
-1379.267386 530.452400 1441.115134
-1381.255302 530.525463 1441.322145
-1383.243217 530.598526 1441.529156
-1385.231133 530.671588 1441.736167
-1387.219048 530.744651 1441.943178
-1389.206964 530.817714 1442.150189
-1391.194879 530.890777 1442.357200
-1393.182795 530.963839 1442.564211
-1395.170710 531.036902 1442.771223
-1397.158626 531.109965 1442.978234
-1399.146542 531.183028 1443.185245
-1401.134457 531.256090 1443.392256
-1403.122373 531.329153 1443.599267
-1405.110288 531.402216 1443.806278
-1407.098204 531.475279 1444.013289
-1409.086119 531.548341 1444.220300
-1411.074035 531.621404 1444.427311
-1413.061950 531.694467 1444.634323
-1415.049866 531.767530 1444.841334
-1417.037782 531.840592 1445.048345
-1419.025697 531.913655 1445.255356
-1421.013613 531.986718 1445.462367
-1423.001528 532.059781 1445.669378
-1424.989444 532.132843 1445.876389
-1426.977359 532.205906 1446.083400
-1428.965275 532.278969 1446.290411
-1430.953190 532.352032 1446.497423
-1432.941106 532.425094 1446.704434
-1434.929021 532.498157 1446.911445
-1436.916937 532.571220 1447.118456
-1438.904853 532.644282 1447.325467
-1440.892768 532.717345 1447.532478
-1442.880684 532.790408 1447.739489
-1444.868599 532.863471 1447.946500
-1446.856515 532.936533 1448.153511
-1448.844430 533.009596 1448.360523
-1450.832346 533.082659 1448.567534
-1452.820261 533.155722 1448.774545
-1454.808177 533.228784 1448.981556
-1456.796093 533.301847 1449.188567
-1458.784008 533.374910 1449.395578
-1460.771924 533.447973 1449.602589
-1462.759839 533.521035 1449.809600
-1464.747755 533.594098 1450.016612
-1466.735670 533.667161 1450.223623
-1468.723586 533.740224 1450.430634
-1470.711501 533.813286 1450.637645
-1472.699417 533.886349 1450.844656
-1474.687332 533.959412 1451.051667
-1476.675248 534.032475 1451.258678
-1478.663164 534.105537 1451.465689
-1480.651079 534.178600 1451.672700
-1482.638995 534.251663 1451.879712
-1484.626910 534.324726 1452.086723
-1486.614826 534.397788 1452.293734
-1488.602741 534.470851 1452.500745
-1490.590657 534.543914 1452.707756
-1492.578572 534.616977 1452.914767
-1494.566488 534.690039 1453.121778
-1496.554404 534.763102 1453.328789
-1498.542319 534.836165 1453.535800
-1500.530235 534.909228 1453.742812
-1176.500000 3.000000 1353.000000
-1176.500000 4.983603 1353.255580
-1176.500000 6.967205 1353.511159
-1176.500000 8.950808 1353.766739
-1176.500000 10.934410 1354.022318
-1176.500000 12.918013 1354.277898
-1176.500000 14.901615 1354.533477
-1176.500000 16.885218 1354.789057
-1176.500000 18.868820 1355.044636
-1176.500000 20.852423 1355.300216
-1176.500000 22.836026 1355.555796
-1176.500000 24.819628 1355.811375
-1176.500000 26.803231 1356.066955
-1176.500000 28.786833 1356.322534
-1176.500000 30.770436 1356.578114
-1176.500000 32.754038 1356.833693
-1176.500000 34.737641 1357.089273
-1176.500000 36.721243 1357.344853
-1176.500000 38.704846 1357.600432
-1176.500000 40.688449 1357.856012
-1176.500000 42.672051 1358.111591
-1176.500000 44.655654 1358.367171
-1176.500000 46.639256 1358.622750
-1176.500000 48.622859 1358.878330
-1176.500000 50.606461 1359.133909
-1176.500000 52.590064 1359.389489
-1176.500000 54.573666 1359.645069
-1176.500000 56.557269 1359.900648
-1176.500000 58.540871 1360.156228
-1176.500000 60.524474 1360.411807
-1176.500000 62.508077 1360.667387
-1176.500000 64.491679 1360.922966
-1176.500000 66.475282 1361.178546
-1176.500000 68.458884 1361.434125
-1176.500000 70.442487 1361.689705
-1176.500000 72.426089 1361.945285
-1176.500000 74.409692 1362.200864
-1176.500000 76.393294 1362.456444
-1176.500000 78.376897 1362.712023
-1176.500000 80.360500 1362.967603
-1176.500000 82.344102 1363.223182
-1176.500000 84.327705 1363.478762
-1176.500000 86.311307 1363.734342
-1176.500000 88.294910 1363.989921
-1176.500000 90.278512 1364.245501
-1176.500000 92.262115 1364.501080
-1176.500000 94.245717 1364.756660
-1176.500000 96.229320 1365.012239
-1176.500000 98.212923 1365.267819
-1176.500000 100.196525 1365.523398
-1176.500000 102.180128 1365.778978
-1176.500000 104.163730 1366.034558
-1176.500000 106.147333 1366.290137
-1176.500000 108.130935 1366.545717
-1176.500000 110.114538 1366.801296
-1176.500000 112.098140 1367.056876
-1176.500000 114.081743 1367.312455
-1176.500000 116.065346 1367.568035
-1176.500000 118.048948 1367.823614
-1176.500000 120.032551 1368.079194
-1176.500000 122.016153 1368.334774
-1176.500000 123.999756 1368.590353
-1176.500000 125.983358 1368.845933
-1176.500000 127.966961 1369.101512
-1176.500000 129.950563 1369.357092
-1176.500000 131.934166 1369.612671
-1176.500000 133.917769 1369.868251
-1176.500000 135.901371 1370.123831
-1176.500000 137.884974 1370.379410
-1176.500000 139.868576 1370.634990
-1176.500000 141.852179 1370.890569
-1176.500000 143.835781 1371.146149
-1176.500000 145.819384 1371.401728
-1176.500000 147.802986 1371.657308
-1176.500000 149.786589 1371.912887
-1176.500000 151.770191 1372.168467
-1176.500000 153.753794 1372.424047
-1176.500000 155.737397 1372.679626
-1176.500000 157.720999 1372.935206
-1176.500000 159.704602 1373.190785
-1176.500000 161.688204 1373.446365
-1176.500000 163.671807 1373.701944
-1176.500000 165.655409 1373.957524
-1176.500000 167.639012 1374.213103
-1176.500000 169.622614 1374.468683
-1176.500000 171.606217 1374.724263
-1176.500000 173.589820 1374.979842
-1176.500000 175.573422 1375.235422
-1176.500000 177.557025 1375.491001
-1176.500000 179.540627 1375.746581
-1176.500000 181.524230 1376.002160
-1176.500000 183.507832 1376.257740
-1176.500000 185.491435 1376.513319
-1176.500000 187.475037 1376.768899
-1176.500000 189.458640 1377.024479
-1176.500000 191.442243 1377.280058
-1176.500000 193.425845 1377.535638
-1176.500000 195.409448 1377.791217
-1176.500000 197.393050 1378.046797
-1176.500000 199.376653 1378.302376
-1176.500000 201.360255 1378.557956
-1176.500000 203.343858 1378.813536
-1176.500000 205.327460 1379.069115
-1176.500000 207.311063 1379.324695
-1176.500000 209.294666 1379.580274
-1176.500000 211.278268 1379.835854
-1176.500000 213.261871 1380.091433
-1176.500000 215.245473 1380.347013
-1176.500000 217.229076 1380.602592
-1176.500000 219.212678 1380.858172
-1176.500000 221.196281 1381.113752
-1176.500000 223.179883 1381.369331
-1176.500000 225.163486 1381.624911
-1176.500000 227.147088 1381.880490
-1176.500000 229.130691 1382.136070
-1176.500000 231.114294 1382.391649
-1176.500000 233.097896 1382.647229
-1176.500000 235.081499 1382.902808
-1176.500000 237.065101 1383.158388
-1176.500000 239.048704 1383.413968
-1176.500000 241.032306 1383.669547
-1176.500000 243.015909 1383.925127
-1176.500000 244.999511 1384.180706
-1176.500000 246.983114 1384.436286
-1176.500000 248.966717 1384.691865
-1176.500000 250.950319 1384.947445
-1176.500000 252.933922 1385.203025
-1176.500000 254.917524 1385.458604
-1176.500000 256.901127 1385.714184
-1176.500000 258.884729 1385.969763
-1176.500000 260.868332 1386.225343
-1176.500000 262.851934 1386.480922
-1176.500000 264.835537 1386.736502
-1176.500000 266.819140 1386.992081
-1176.500000 268.802742 1387.247661
-1176.500000 270.786345 1387.503241
-1176.500000 272.769947 1387.758820
-1176.500000 274.753550 1388.014400
-1176.500000 276.737152 1388.269979
-1176.500000 278.720755 1388.525559
-1176.500000 280.704357 1388.781138
-1176.500000 282.687960 1389.036718
-1176.500000 284.671563 1389.292297
-1176.500000 286.655165 1389.547877
-1176.500000 288.638768 1389.803457
-1176.500000 290.622370 1390.059036
-1176.500000 292.605973 1390.314616
-1176.500000 294.589575 1390.570195
-1176.500000 296.573178 1390.825775
-1176.500000 298.556780 1391.081354
-1176.500000 300.540383 1391.336934
-1176.500000 302.523986 1391.592514
-1176.500000 304.507588 1391.848093
-1176.500000 306.491191 1392.103673
-1176.500000 308.474793 1392.359252
-1176.500000 310.458396 1392.614832
-1176.500000 312.441998 1392.870411
-1176.500000 314.425601 1393.125991
-1176.500000 316.409203 1393.381570
-1176.500000 318.392806 1393.637150
-1176.500000 320.376408 1393.892730
-1176.500000 322.360011 1394.148309
-1176.500000 324.343614 1394.403889
-1176.500000 326.327216 1394.659468
-1176.500000 328.310819 1394.915048
-1176.500000 330.294421 1395.170627
-1176.500000 332.278024 1395.426207
-1176.500000 334.261626 1395.681786
-1176.500000 336.245229 1395.937366
-1176.500000 338.228831 1396.192946
-1176.500000 340.212434 1396.448525
-1176.500000 342.196037 1396.704105
-1176.500000 344.179639 1396.959684
-1176.500000 346.163242 1397.215264
-1176.500000 348.146844 1397.470843
-1176.500000 350.130447 1397.726423
-1176.500000 352.114049 1397.982003
-1176.500000 354.097652 1398.237582
-1176.500000 356.081254 1398.493162
-1176.500000 358.064857 1398.748741
-1176.500000 360.048460 1399.004321
-1176.500000 362.032062 1399.259900
-1176.500000 364.015665 1399.515480
-1176.500000 365.999267 1399.771059
-1176.500000 367.982870 1400.026639
-1176.500000 369.966472 1400.282219
-1176.500000 371.950075 1400.537798
-1176.500000 373.933677 1400.793378
-1176.500000 375.917280 1401.048957
-1176.500000 377.900883 1401.304537
-1176.500000 379.884485 1401.560116
-1176.500000 381.868088 1401.815696
-1176.500000 383.851690 1402.071275
-1176.500000 385.835293 1402.326855
-1176.500000 387.818895 1402.582435
-1176.500000 389.802498 1402.838014
-1176.500000 391.786100 1403.093594
-1176.500000 393.769703 1403.349173
-1176.500000 395.753306 1403.604753
-1176.500000 397.736908 1403.860332
-1176.500000 399.720511 1404.115912
-1176.500000 401.704113 1404.371492
-1176.500000 403.687716 1404.627071
-1176.500000 405.671318 1404.882651
-1176.500000 407.654921 1405.138230
-1176.500000 409.638523 1405.393810
-1176.500000 411.622126 1405.649389
-1176.500000 413.605728 1405.904969
-1176.500000 415.589331 1406.160548
-1176.500000 417.572934 1406.416128
-1176.500000 419.556536 1406.671708
-1176.500000 421.540139 1406.927287
-1176.500000 423.523741 1407.182867
-1176.500000 425.507344 1407.438446
-1176.500000 427.490946 1407.694026
-1176.500000 429.474549 1407.949605
-1176.500000 431.458151 1408.205185
-1176.500000 433.441754 1408.460764
-1176.500000 435.425357 1408.716344
-1176.500000 437.408959 1408.971924
-1176.500000 439.392562 1409.227503
-1176.500000 441.376164 1409.483083
-1176.500000 443.359767 1409.738662
-1176.500000 445.343369 1409.994242
-1176.500000 447.326972 1410.249821
-1176.500000 449.310574 1410.505401
-1176.500000 451.294177 1410.760980
-1176.500000 453.277780 1411.016560
-1176.500000 455.261382 1411.272140
-1176.500000 457.244985 1411.527719
-1176.500000 459.228587 1411.783299
-1176.500000 461.212190 1412.038878
-1176.500000 463.195792 1412.294458
-1176.500000 465.179395 1412.550037
-1176.500000 467.162997 1412.805617
-1176.500000 469.146600 1413.061197
-1176.500000 471.130203 1413.316776
-1176.500000 473.113805 1413.572356
-1176.500000 475.097408 1413.827935
-1176.500000 477.081010 1414.083515
-1176.500000 479.064613 1414.339094
-1176.500000 481.048215 1414.594674
-1176.500000 483.031818 1414.850253
-1176.500000 485.015420 1415.105833
-1176.500000 486.999023 1415.361413
-1176.500000 488.982626 1415.616992
-1176.500000 490.966228 1415.872572
-1176.500000 492.949831 1416.128151
-1176.500000 494.933433 1416.383731
-1176.500000 496.917036 1416.639310
-1176.500000 498.900638 1416.894890
-1176.500000 500.884241 1417.150469
-1176.500000 502.867843 1417.406049
-1176.500000 504.851446 1417.661629
-1176.500000 506.835048 1417.917208
-1176.500000 508.818651 1418.172788
-1176.500000 510.802254 1418.428367
-1176.500000 512.785856 1418.683947
-1176.500000 514.769459 1418.939526
-1176.500000 516.753061 1419.195106
-1176.500000 518.736664 1419.450686
-1176.500000 520.720266 1419.706265
-1239.000000 -160.000000 1353.000000
-1238.283961 -158.132572 1353.000000
-1237.567923 -156.265143 1353.000000
-1236.851884 -154.397715 1353.000000
-1236.135846 -152.530286 1353.000000
-1235.419807 -150.662858 1353.000000
-1234.703769 -148.795430 1353.000000
-1233.987730 -146.928001 1353.000000
-1233.271692 -145.060573 1353.000000
-1232.555653 -143.193144 1353.000000
-1231.839615 -141.325716 1353.000000
-1231.123576 -139.458287 1353.000000
-1230.407538 -137.590859 1353.000000
-1229.691499 -135.723431 1353.000000
-1228.975461 -133.856002 1353.000000
-1228.259422 -131.988574 1353.000000
-1227.543384 -130.121145 1353.000000
-1226.827345 -128.253717 1353.000000
-1226.111307 -126.386289 1353.000000
-1225.395268 -124.518860 1353.000000
-1224.679230 -122.651432 1353.000000
-1223.963191 -120.784003 1353.000000
-1223.247153 -118.916575 1353.000000
-1222.531114 -117.049147 1353.000000
-1221.815076 -115.181718 1353.000000
-1221.099037 -113.314290 1353.000000
-1220.382999 -111.446861 1353.000000
-1219.666960 -109.579433 1353.000000
-1218.950922 -107.712005 1353.000000
-1218.234883 -105.844576 1353.000000
-1217.518845 -103.977148 1353.000000
-1216.802806 -102.109719 1353.000000
-1216.086768 -100.242291 1353.000000
-1215.370729 -98.374862 1353.000000
-1214.654691 -96.507434 1353.000000
-1213.938652 -94.640006 1353.000000
-1213.222614 -92.772577 1353.000000
-1212.506575 -90.905149 1353.000000
-1211.790537 -89.037720 1353.000000
-1211.074498 -87.170292 1353.000000
-1210.358460 -85.302864 1353.000000
-1209.642421 -83.435435 1353.000000
-1208.926383 -81.568007 1353.000000
-1208.210344 -79.700578 1353.000000
-1207.494306 -77.833150 1353.000000
-1206.778267 -75.965722 1353.000000
-1206.062229 -74.098293 1353.000000
-1205.346190 -72.230865 1353.000000
-1204.630152 -70.363436 1353.000000
-1203.914113 -68.496008 1353.000000
-1203.198075 -66.628580 1353.000000
-1202.482036 -64.761151 1353.000000
-1201.765998 -62.893723 1353.000000
-1201.049959 -61.026294 1353.000000
-1200.333921 -59.158866 1353.000000
-1199.617882 -57.291437 1353.000000
-1198.901844 -55.424009 1353.000000
-1198.185805 -53.556581 1353.000000
-1197.469767 -51.689152 1353.000000
-1196.753728 -49.821724 1353.000000
-1196.037690 -47.954295 1353.000000
-1195.321651 -46.086867 1353.000000
-1194.605613 -44.219439 1353.000000
-1193.889574 -42.352010 1353.000000
-1193.173536 -40.484582 1353.000000
-1192.457497 -38.617153 1353.000000
-1191.741459 -36.749725 1353.000000
-1191.025420 -34.882297 1353.000000
-1190.309382 -33.014868 1353.000000
-1189.593343 -31.147440 1353.000000
-1188.877305 -29.280011 1353.000000
-1188.161266 -27.412583 1353.000000
-1187.445228 -25.545154 1353.000000
-1186.729189 -23.677726 1353.000000
-1186.013151 -21.810298 1353.000000
-1185.297112 -19.942869 1353.000000
-1184.581074 -18.075441 1353.000000
-1183.865035 -16.208012 1353.000000
-1183.148997 -14.340584 1353.000000
-1182.432958 -12.473156 1353.000000
-1181.716920 -10.605727 1353.000000
-1181.000881 -8.738299 1353.000000
-1180.284843 -6.870870 1353.000000
-1179.568804 -5.003442 1353.000000
-1178.852766 -3.136014 1353.000000
-1178.136727 -1.268585 1353.000000
-1177.420689 0.598843 1353.000000
-1169.500000 -160.000000 1888.500000
-1169.757412 -160.000000 1886.516634
-1170.014823 -160.000000 1884.533269
-1170.272235 -160.000000 1882.549903
-1170.529646 -160.000000 1880.566537
-1170.787058 -160.000000 1878.583172
-1171.044470 -160.000000 1876.599806
-1171.301881 -160.000000 1874.616441
-1171.559293 -160.000000 1872.633075
-1171.816704 -160.000000 1870.649709
-1172.074116 -160.000000 1868.666344
-1172.331528 -160.000000 1866.682978
-1172.588939 -160.000000 1864.699612
-1172.846351 -160.000000 1862.716247
-1173.103762 -160.000000 1860.732881
-1173.361174 -160.000000 1858.749515
-1173.618586 -160.000000 1856.766150
-1173.875997 -160.000000 1854.782784
-1174.133409 -160.000000 1852.799418
-1174.390820 -160.000000 1850.816053
-1174.648232 -160.000000 1848.832687
-1174.905644 -160.000000 1846.849322
-1175.163055 -160.000000 1844.865956
-1175.420467 -160.000000 1842.882590
-1175.677878 -160.000000 1840.899225
-1175.935290 -160.000000 1838.915859
-1176.192702 -160.000000 1836.932493
-1176.450113 -160.000000 1834.949128
-1176.707525 -160.000000 1832.965762
-1176.964936 -160.000000 1830.982396
-1177.222348 -160.000000 1828.999031
-1177.479760 -160.000000 1827.015665
-1177.737171 -160.000000 1825.032299
-1177.994583 -160.000000 1823.048934
-1178.251994 -160.000000 1821.065568
-1178.509406 -160.000000 1819.082203
-1178.766818 -160.000000 1817.098837
-1179.024229 -160.000000 1815.115471
-1179.281641 -160.000000 1813.132106
-1179.539052 -160.000000 1811.148740
-1179.796464 -160.000000 1809.165374
-1180.053876 -160.000000 1807.182009
-1180.311287 -160.000000 1805.198643
-1180.568699 -160.000000 1803.215277
-1180.826110 -160.000000 1801.231912
-1181.083522 -160.000000 1799.248546
-1181.340934 -160.000000 1797.265180
-1181.598345 -160.000000 1795.281815
-1181.855757 -160.000000 1793.298449
-1182.113168 -160.000000 1791.315084
-1182.370580 -160.000000 1789.331718
-1182.627992 -160.000000 1787.348352
-1182.885403 -160.000000 1785.364987
-1183.142815 -160.000000 1783.381621
-1183.400226 -160.000000 1781.398255
-1183.657638 -160.000000 1779.414890
-1183.915050 -160.000000 1777.431524
-1184.172461 -160.000000 1775.448158
-1184.429873 -160.000000 1773.464793
-1184.687284 -160.000000 1771.481427
-1184.944696 -160.000000 1769.498062
-1185.202108 -160.000000 1767.514696
-1185.459519 -160.000000 1765.531330
-1185.716931 -160.000000 1763.547965
-1185.974342 -160.000000 1761.564599
-1186.231754 -160.000000 1759.581233
-1186.489166 -160.000000 1757.597868
-1186.746577 -160.000000 1755.614502
-1187.003989 -160.000000 1753.631136
-1187.261400 -160.000000 1751.647771
-1187.518812 -160.000000 1749.664405
-1187.776224 -160.000000 1747.681039
-1188.033635 -160.000000 1745.697674
-1188.291047 -160.000000 1743.714308
-1188.548458 -160.000000 1741.730943
-1188.805870 -160.000000 1739.747577
-1189.063282 -160.000000 1737.764211
-1189.320693 -160.000000 1735.780846
-1189.578105 -160.000000 1733.797480
-1189.835516 -160.000000 1731.814114
-1190.092928 -160.000000 1729.830749
-1190.350340 -160.000000 1727.847383
-1190.607751 -160.000000 1725.864017
-1190.865163 -160.000000 1723.880652
-1191.122574 -160.000000 1721.897286
-1191.379986 -160.000000 1719.913920
-1191.637398 -160.000000 1717.930555
-1191.894809 -160.000000 1715.947189
-1192.152221 -160.000000 1713.963824
-1192.409632 -160.000000 1711.980458
-1192.667044 -160.000000 1709.997092
-1192.924456 -160.000000 1708.013727
-1193.181867 -160.000000 1706.030361
-1193.439279 -160.000000 1704.046995
-1193.696690 -160.000000 1702.063630
-1193.954102 -160.000000 1700.080264
-1194.211514 -160.000000 1698.096898
-1194.468925 -160.000000 1696.113533
-1194.726337 -160.000000 1694.130167
-1194.983748 -160.000000 1692.146801
-1195.241160 -160.000000 1690.163436
-1195.498572 -160.000000 1688.180070
-1195.755983 -160.000000 1686.196705
-1196.013395 -160.000000 1684.213339
-1196.270806 -160.000000 1682.229973
-1196.528218 -160.000000 1680.246608
-1196.785630 -160.000000 1678.263242
-1197.043041 -160.000000 1676.279876
-1197.300453 -160.000000 1674.296511
-1197.557864 -160.000000 1672.313145
-1197.815276 -160.000000 1670.329779
-1198.072688 -160.000000 1668.346414
-1198.330099 -160.000000 1666.363048
-1198.587511 -160.000000 1664.379683
-1198.844922 -160.000000 1662.396317
-1199.102334 -160.000000 1660.412951
-1199.359746 -160.000000 1658.429586
-1199.617157 -160.000000 1656.446220
-1199.874569 -160.000000 1654.462854
-1200.131980 -160.000000 1652.479489
-1200.389392 -160.000000 1650.496123
-1200.646804 -160.000000 1648.512757
-1200.904215 -160.000000 1646.529392
-1201.161627 -160.000000 1644.546026
-1201.419038 -160.000000 1642.562660
-1201.676450 -160.000000 1640.579295
-1201.933862 -160.000000 1638.595929
-1202.191273 -160.000000 1636.612564
-1202.448685 -160.000000 1634.629198
-1202.706096 -160.000000 1632.645832
-1202.963508 -160.000000 1630.662467
-1203.220920 -160.000000 1628.679101
-1203.478331 -160.000000 1626.695735
-1203.735743 -160.000000 1624.712370
-1203.993154 -160.000000 1622.729004
-1204.250566 -160.000000 1620.745638
-1204.507978 -160.000000 1618.762273
-1204.765389 -160.000000 1616.778907
-1205.022801 -160.000000 1614.795541
-1205.280212 -160.000000 1612.812176
-1205.537624 -160.000000 1610.828810
-1205.795036 -160.000000 1608.845445
-1206.052447 -160.000000 1606.862079
-1206.309859 -160.000000 1604.878713
-1206.567270 -160.000000 1602.895348
-1206.824682 -160.000000 1600.911982
-1207.082094 -160.000000 1598.928616
-1207.339505 -160.000000 1596.945251
-1207.596917 -160.000000 1594.961885
-1207.854328 -160.000000 1592.978519
-1208.111740 -160.000000 1590.995154
-1208.369152 -160.000000 1589.011788
-1208.626563 -160.000000 1587.028422
-1208.883975 -160.000000 1585.045057
-1209.141386 -160.000000 1583.061691
-1209.398798 -160.000000 1581.078326
-1209.656210 -160.000000 1579.094960
-1209.913621 -160.000000 1577.111594
-1210.171033 -160.000000 1575.128229
-1210.428444 -160.000000 1573.144863
-1210.685856 -160.000000 1571.161497
-1210.943268 -160.000000 1569.178132
-1211.200679 -160.000000 1567.194766
-1211.458091 -160.000000 1565.211400
-1211.715502 -160.000000 1563.228035
-1211.972914 -160.000000 1561.244669
-1212.230326 -160.000000 1559.261304
-1212.487737 -160.000000 1557.277938
-1212.745149 -160.000000 1555.294572
-1213.002560 -160.000000 1553.311207
-1213.259972 -160.000000 1551.327841
-1213.517384 -160.000000 1549.344475
-1213.774795 -160.000000 1547.361110
-1214.032207 -160.000000 1545.377744
-1214.289618 -160.000000 1543.394378
-1214.547030 -160.000000 1541.411013
-1214.804442 -160.000000 1539.427647
-1215.061853 -160.000000 1537.444281
-1215.319265 -160.000000 1535.460916
-1215.576676 -160.000000 1533.477550
-1215.834088 -160.000000 1531.494185
-1216.091500 -160.000000 1529.510819
-1216.348911 -160.000000 1527.527453
-1216.606323 -160.000000 1525.544088
-1216.863734 -160.000000 1523.560722
-1217.121146 -160.000000 1521.577356
-1217.378558 -160.000000 1519.593991
-1217.635969 -160.000000 1517.610625
-1217.893381 -160.000000 1515.627259
-1218.150793 -160.000000 1513.643894
-1218.408204 -160.000000 1511.660528
-1218.665616 -160.000000 1509.677162
-1218.923027 -160.000000 1507.693797
-1219.180439 -160.000000 1505.710431
-1219.437851 -160.000000 1503.727066
-1219.695262 -160.000000 1501.743700
-1219.952674 -160.000000 1499.760334
-1220.210085 -160.000000 1497.776969
-1220.467497 -160.000000 1495.793603
-1220.724909 -160.000000 1493.810237
-1220.982320 -160.000000 1491.826872
-1221.239732 -160.000000 1489.843506
-1221.497143 -160.000000 1487.860140
-1221.754555 -160.000000 1485.876775
-1222.011967 -160.000000 1483.893409
-1222.269378 -160.000000 1481.910043
-1222.526790 -160.000000 1479.926678
-1222.784201 -160.000000 1477.943312
-1223.041613 -160.000000 1475.959947
-1223.299025 -160.000000 1473.976581
-1223.556436 -160.000000 1471.993215
-1223.813848 -160.000000 1470.009850
-1224.071259 -160.000000 1468.026484
-1224.328671 -160.000000 1466.043118
-1224.586083 -160.000000 1464.059753
-1224.843494 -160.000000 1462.076387
-1225.100906 -160.000000 1460.093021
-1225.358317 -160.000000 1458.109656
-1225.615729 -160.000000 1456.126290
-1225.873141 -160.000000 1454.142925
